1.97461 -5.77344 217.0 4 380 96 
-3.37305 11.375 195.0 4 376 100 
-1.99902 -6.04688 225.0 4 380 100 
3.875 5.27344 85.0 4 368 104 
3.02344 15.8672 116.0 4 372 104 
-0.774902 5.57422 102.0 4 368 108 
-2.62305 18.2656 130.0 4 372 108 
-0.824707 10.6719 184.0 4 376 104 
-0.449951 -2.39844 214.0 4 380 104 
2.44922 7.59766 196.0 4 376 108 
3.14844 -4.54688 217.0 4 380 108 
-0.761719 -12.6172 209.0 8 352 112 
-1.89941 -3.79883 121.0 4 360 112 
6.82422 5.32422 97.0 4 364 112 
2.77344 3.07422 101.0 4 360 116 
1.82422 6.47266 123.0 4 364 116 
-7.24609 -9.94531 185.0 4 352 120 
-3.39844 -10.3438 149.0 4 356 120 
-3.52344 -8.96875 152.0 4 352 124 
0.5 -0.799805 113.0 4 356 124 
4.91797 7.87891 99.0 8 360 120 
10.0469 2.34961 113.0 4 368 112 
8.74219 14.3984 131.0 4 372 112 
0.424805 3.77344 152.0 4 368 116 
3.57422 16.4688 174.0 4 372 116 
6.19922 7.89844 202.0 4 376 112 
1.6748 -6.32422 228.0 4 380 112 
-0.549805 1.34961 241.0 4 376 116 
2.89844 -6.89844 237.0 4 380 116 
8.41406 9.21875 151.0 8 368 120 
0.981934 -3.35352 245.0 8 376 120 
-5.08594 -1.14258 212.0 8 384 0 
-7.77734 -6.72656 198.0 8 392 0 
3.89844 -2.0 175.0 4 384 8 
-8.57031 -11.9688 170.0 4 388 8 
-5.02344 -14.5703 208.0 4 384 12 
-4.32422 -9.21875 138.0 4 388 12 
-2.70898 -1.69727 117.0 8 392 8 
-3.23828 -2.44336 125.0 8 400 0 
-0.938965 2.83008 96.0 8 408 0 
-0.303467 -0.580078 99.0 8 400 8 
1.00879 1.82715 93.0 8 408 8 
-7.875 -14.6172 177.0 4 384 16 
-2.24805 -3.25 116.0 4 388 16 
-4.77344 -9.71875 140.0 4 384 20 
-0.749512 -0.449951 99.0 4 388 20 
0.300537 -0.835938 96.0 8 392 16 
2.21289 -4.23438 116.0 8 384 24 
-0.104126 -0.621582 98.0 8 392 24 
0.479004 0.705078 92.0 8 400 16 
3.97461 7.92969 87.0 8 408 16 
1.52148 2.06055 85.0 8 400 24 
-0.0744019 10.625 104.0 8 408 24 
-0.699707 9.39844 121.0 4 416 0 
-2.22461 18.1094 161.0 4 420 0 
-3.64844 3.89844 125.0 4 416 4 
-7.875 9.71875 152.0 4 420 4 
-8.79688 7.0 246.0 4 424 0 
-4.99609 -2.75 260.0 4 428 0 
-10.7969 11.75 199.0 4 424 4 
-6.62109 -0.774902 235.0 4 428 4 
-3.17383 2.27344 115.0 4 416 8 
-5.42188 5.57422 128.0 4 420 8 
6.25 0.949707 108.0 4 416 12 
5.77344 7.87109 108.0 4 420 12 
-7.625 11.7734 157.0 4 424 8 
1.2998 15.5938 189.0 4 428 8 
4.64844 3.39844 152.0 4 424 12 
-5.47266 14.0234 198.0 4 428 12 
0.473145 3.81445 231.0 8 432 0 
-0.0 2.5034e-06 254.0 8 440 0 
-3.20508 2.05469 250.0 8 432 8 
-0.0 2.5034e-06 254.0 8 440 8 
14.2188 5.92188 135.0 4 416 16 
15.3438 2.59961 151.0 4 420 16 
3.42383 12.0703 173.0 4 416 20 
11.1953 -1.2998 217.0 4 420 20 
8.59375 1.80859 180.0 8 424 16 
4.52344 14.7734 185.0 4 416 24 
0.124939 0.124939 254.0 4 420 24 
2.04883 14.3984 199.0 4 416 28 
-8.10623e-06 -0.0 255.0 4 420 28 
0.355469 0.114563 252.0 8 424 24 
0.550781 0.635254 243.0 16 432 16 
-0.774902 -15.0703 163.0 4 384 32 
-1.5 -3.79883 111.0 4 388 32 
-1.2998 -14.2969 155.0 4 384 36 
2.07422 -0.375 98.0 4 388 36 
0.734863 -0.282715 93.0 8 392 32 
-1.09277 -3.13086 129.0 8 384 40 
-3.62305 -2.02344 110.0 4 392 40 
-2.52344 1.57422 115.0 4 396 40 
5.07422 2.47461 88.0 4 392 44 
4.19922 -3.64844 99.0 4 396 44 
-0.818359 2.0918 98.0 8 400 32 
-1.81055 8.35156 118.0 8 408 32 
-0.855469 1.54004 97.0 8 400 40 
3.125 14.7031 94.0 8 408 40 
-1.50879 -1.19043 112.0 8 384 48 
-0.254395 3.4043 92.0 8 392 48 
-1.56152 0.0625 92.0 8 384 56 
-2.27344 3.17383 85.0 4 392 56 
-3.07422 10.5703 111.0 4 396 56 
2.125 0.824707 81.0 4 392 60 
-3.77344 3.97461 105.0 4 396 60 
2.09961 2.98633 92.0 8 400 48 
2.32422 6.17188 122.0 4 408 48 
-4.84766 13.0938 174.0 4 412 48 
-1.34961 5.19922 132.0 4 408 52 
-1.22461 9.11719 156.0 4 412 52 
3.75 -4.14844 135.0 4 400 56 
3.89844 -0.199951 119.0 4 404 56 
-1.07422 10.8203 125.0 4 400 60 
3.72461 -3.67383 144.0 4 404 60 
0.524902 4.02344 125.0 4 408 56 
0.574707 19.875 149.0 4 412 56 
1.07422 2.07422 136.0 4 408 60 
-1.375 18.8594 147.0 4 412 60 
-2.64844 22.0 195.0 4 416 32 
-8.10623e-06 -0.0 255.0 4 420 32 
-2.59961 17.1875 188.0 4 416 36 
-0.549805 0.599609 254.0 4 420 36 
-0.0 2.5034e-06 254.0 8 424 32 
10.7188 9.71875 196.0 4 416 40 
0.449951 0.899902 252.0 4 420 40 
-2.29883 7.59766 239.0 4 416 44 
-8.10623e-06 -0.0 255.0 4 420 44 
-0.0 2.5034e-06 254.0 8 424 40 
5.1856e-06 -3.75509e-06 255.0 16 432 32 
-4.125 9.71875 229.0 4 416 48 
-1.0498 0.699707 254.0 4 420 48 
-2.74805 13.3984 201.0 4 416 52 
1.39941 2.39844 247.0 4 420 52 
-0.0 2.5034e-06 254.0 8 424 48 
-0.239502 4.36719 231.0 8 416 56 
-0.0 2.5034e-06 254.0 8 424 56 
-0.283447 -0.285889 258.0 16 432 48 
5.1856e-06 -3.75509e-06 255.0 16 448 0 
-0.231445 -0.519531 257.0 16 464 0 
-0.388428 -0.541016 260.0 16 448 16 
-3.03906 -3.32812 260.0 8 464 16 
0.300537 3.19531 236.0 8 472 16 
1.41797 3.03711 218.0 8 464 24 
0.361572 0.382324 251.0 8 472 24 
0.0287933 0.029129 253.0 32 480 0 
-0.0 2.5034e-06 254.0 8 448 32 
-1.66797 -5.12109 263.0 8 456 32 
-0.358398 -0.388184 256.0 8 448 40 
-2.19922 -8.59375 254.0 4 456 40 
3.92383 1.4248 221.0 4 460 40 
-2.19922 -0.749512 233.0 4 456 44 
3.14844 5.0 230.0 4 460 44 
0.618652 0.816895 241.0 16 464 32 
-8.10623e-06 -0.0 255.0 4 448 48 
-4.69922 -8.29688 258.0 4 452 48 
-0.674805 -0.674805 256.0 4 448 52 
1.07422 -7.17188 233.0 4 452 52 
-0.212769 5.12891 223.0 8 456 48 
-3.18359 -1.56543 239.0 8 448 56 
0.577148 3.66016 232.0 8 456 56 
0.000649929 0.00138569 254.0 16 464 48 
-1.66893e-06 -2.00272e-05 255.0 32 480 32 
2.23633 2.66211 74.0 8 384 64 
9.57812 3.51758 78.0 8 392 64 
4.07812 7.27344 75.0 8 384 72 
5.97266 13.2188 132.0 4 392 72 
1.4248 -1.22461 188.0 4 396 72 
4.02344 10.1719 162.0 4 392 76 
1.25 -0.399902 198.0 4 396 76 
6.49609 14.9453 106.0 4 400 64 
9.71875 -5.67188 157.0 4 404 64 
7.92188 11.8203 138.0 4 400 68 
4.29688 0.149902 191.0 4 404 68 
1.34961 -0.349854 141.0 4 408 64 
-2.67383 15.4219 150.0 4 412 64 
10.5469 -5.84766 173.0 4 408 68 
5.69922 10.1953 159.0 4 412 68 
0.862793 -0.339111 191.0 8 400 72 
-0.662109 -1.03125 194.0 8 408 72 
3.53906 12.8125 100.0 8 384 80 
0.165161 -0.840332 202.0 8 392 80 
2.30273 6.55469 149.0 8 384 88 
-0.734863 -1.45801 206.0 8 392 88 
-0.168091 -0.585449 199.0 16 400 80 
-2.4668 6.67578 220.0 8 416 64 
-0.0 2.5034e-06 254.0 8 424 64 
-4.97656 4.73047 208.0 8 416 72 
-1.15723 2.08008 248.0 8 424 72 
-0.0 2.5034e-06 254.0 8 432 64 
-2.75391 -6.54688 262.0 8 440 64 
-1.62598 -2.78711 265.0 8 432 72 
-0.342041 -1.44629 220.0 8 440 72 
-1.39355 1.49219 185.0 8 416 80 
-8.27344 12.5234 218.0 4 424 80 
-4.34766 0.849609 256.0 4 428 80 
-2.59961 5.79688 198.0 4 424 84 
-9.57031 0.824707 231.0 4 428 84 
0.588867 0.720215 179.0 8 416 88 
-1.69141 0.813965 191.0 8 424 88 
-10.6484 -6.29688 265.0 4 432 80 
-7.44922 -3.29883 227.0 4 436 80 
-4.94922 -6.69922 219.0 4 432 84 
-2.625 2.37305 200.0 4 436 84 
-0.606934 2.39453 203.0 8 440 80 
0.69043 1.99609 189.0 8 432 88 
4.0625 3.72852 194.0 8 440 88 
0.127441 -0.0664062 197.0 16 384 96 
-0.234497 -0.497559 189.0 16 400 96 
0.404541 0.604004 201.0 8 384 112 
1.06152 -0.193359 199.0 8 392 112 
1.16016 -1.70801 211.0 8 384 120 
-0.413574 -3.71875 206.0 8 392 120 
0.608398 -3.80664 197.0 8 400 112 
1.61816 -0.0238037 176.0 8 408 112 
-0.932617 1.92969 174.0 8 400 120 
-2.52344 1.6748 197.0 4 408 120 
1.99902 -5.14844 192.0 4 412 120 
-0.549805 5.24609 184.0 4 408 124 
3.64844 -2.0 203.0 4 412 124 
0.0758667 -0.364502 181.0 8 416 96 
1.01172 1.81152 175.0 8 424 96 
0.646973 -1.39355 190.0 8 416 104 
3.25586 3.8457 178.0 8 424 104 
0.8125 5.04297 183.0 16 432 96 
-0.827148 1.66895 185.0 8 416 112 
3.64453 5.17578 195.0 8 424 112 
0.242432 1.42969 177.0 8 416 120 
-6.07422 6.82422 210.0 4 424 120 
0.424805 4.42188 244.0 4 428 120 
3.19922 14.1484 185.0 4 424 124 
0.699707 0.75 252.0 4 428 124 
0.904785 0.515137 241.0 16 432 112 
0.0714722 0.0841064 249.0 64 448 64 
0.0643921 -0.067688 253.0 64 256 128 
1.17188 -4.53125 256.0 8 320 128 
3.1875 -2.5918 211.0 8 328 128 
-0.828613 -4.07422 260.0 8 320 136 
1.84473 -2.50781 241.0 8 328 136 
-5.42188 6.27344 210.0 4 336 128 
-4.72266 5.92188 230.0 4 340 128 
5.17188 1.07422 203.0 4 336 132 
0.749512 1.25 215.0 4 340 132 
-5.02344 -3.375 252.0 4 344 128 
-1.82422 -20.7656 222.0 4 348 128 
-6.0 -1.24902 227.0 4 344 132 
-1.39941 -14.1484 209.0 4 348 132 
-3.09961 -2.44336 238.0 8 336 136 
-7.20703 -5.89062 215.0 8 344 136 
1.21973 1.62793 223.0 8 320 144 
-4.27734 -3.37305 262.0 8 328 144 
0.0996704 2.56055 239.0 8 320 152 
3.80469 -6.37891 242.0 8 328 152 
2.30859 -2.05273 231.0 8 336 144 
6.75 -19.25 192.0 4 344 144 
-0.875 -4.875 128.0 4 348 144 
2.39844 -20.5938 225.0 4 344 148 
2.97461 -12.1172 145.0 4 348 148 
-10.6953 4.74609 228.0 4 336 152 
-6.64844 -0.549805 242.0 4 340 152 
-2.42383 -3.67383 200.0 4 336 156 
-14.9922 -1.14941 211.0 4 340 156 
-2.52344 -16.6719 220.0 4 344 152 
1.52441 -12.9219 146.0 4 348 152 
-11.2969 -8.04688 198.0 4 344 156 
-2.92383 -9.77344 147.0 4 348 156 
1.09961 -7.79688 140.0 4 352 128 
-0.349854 4.04688 112.0 4 356 128 
0.824707 -12.2734 148.0 4 352 132 
-0.949707 0.399902 115.0 4 356 132 
-3.2793 6.59766 141.0 8 360 128 
-1.59961 -9.64844 152.0 4 352 136 
-0.274902 -0.224976 111.0 4 356 136 
-3.19922 -4.14844 131.0 4 352 140 
1.84961 -0.349854 117.0 4 356 140 
-0.804688 3.39648 118.0 8 360 136 
-3.51953 9.78125 201.0 8 368 128 
0.645508 -3.02344 257.0 8 376 128 
-7.625 13.2734 165.0 4 368 136 
-0.174927 11.0703 211.0 4 372 136 
3.57422 14.6719 136.0 4 368 140 
2.44922 12.5469 210.0 4 372 140 
0.178467 -0.229126 254.0 8 376 136 
-0.321289 0.913574 115.0 8 352 144 
-0.424805 3.52344 123.0 4 360 144 
4.42188 3.92383 132.0 4 364 144 
3.34961 8.89844 116.0 4 360 148 
7.09766 8.99219 153.0 4 364 148 
1.19727 2.95312 107.0 8 352 152 
1.0498 7.24609 122.0 4 360 152 
0.424805 15.4688 163.0 4 364 152 
3.47461 4.97266 136.0 4 360 156 
0.324951 17.1719 174.0 4 364 156 
4.74609 16.9375 151.0 4 368 144 
-1.49902 4.39844 225.0 4 372 144 
12.8203 9.92188 173.0 4 368 148 
6.125 1.72461 221.0 4 372 148 
-0.995117 0.816895 248.0 8 376 144 
1.43359 2.34375 236.0 8 368 152 
-0.269287 -1.22754 258.0 8 376 152 
1.58398 0.105652 245.0 8 320 160 
-0.5 -2.39844 253.0 4 328 160 
-7.5 -10.3984 247.0 4 332 160 
0.224976 -0.224976 254.0 4 328 164 
6.49609 -14.25 230.0 4 332 164 
-1.2959 -1.37891 261.0 8 320 168 
-4.39844 -2.44922 260.0 4 328 168 
-0.224976 -6.02344 234.0 4 332 168 
-3.24805 -1.14941 238.0 4 328 172 
0.699707 1.44922 225.0 4 332 172 
0.986328 -7.23047 187.0 8 336 160 
0.285645 -3.25 139.0 8 344 160 
5.47266 -6.41016 201.0 8 336 168 
2.76953 -6.33203 162.0 8 344 168 
-2.44922 -2.14453 248.0 8 320 176 
-0.949707 -0.149902 223.0 4 328 176 
2.82422 0.824707 218.0 4 332 176 
3.72461 9.02344 211.0 4 328 180 
2.52344 0.0249939 248.0 4 332 180 
2.9707 -2.47656 242.0 8 320 184 
0.572754 1.4502 242.0 8 328 184 
-3.69922 -8.64844 227.0 4 336 176 
2.69922 -6.29688 186.0 4 340 176 
10.6484 -4.39844 226.0 4 336 180 
6.89844 -8.39844 214.0 4 340 180 
-3.82422 -8.67188 168.0 4 344 176 
0.274902 -2.97461 134.0 4 348 176 
4.69922 -12.5938 171.0 4 344 180 
1.47461 -0.974609 134.0 4 348 180 
-2.87305 -4.22266 260.0 4 336 184 
-6.89844 -15.0938 248.0 4 340 184 
-7.84766 -9.5 257.0 4 336 188 
-8.5 -19.0469 209.0 4 340 188 
-8.57031 -10.1172 181.0 4 344 184 
3.94922 6.19922 131.0 4 348 184 
1.59961 5.84766 127.0 4 344 188 
4.79688 5.09766 154.0 4 348 188 
0.599609 -1.0 117.0 4 352 160 
-1.52441 7.72266 120.0 4 356 160 
-1.47461 2.02344 116.0 4 352 164 
5.84766 8.94531 123.0 4 356 164 
5.22266 10.6719 149.0 4 360 160 
9.07031 8.27344 184.0 4 364 160 
5.92188 15.9688 169.0 4 360 164 
4.14844 3.19922 238.0 4 364 164 
-0.0499878 0.899902 120.0 4 352 168 
1.2219e-05 13.8438 136.0 4 356 168 
2.125 2.32422 120.0 4 352 172 
3.02344 11.5234 138.0 4 356 172 
3.54883 13.8438 188.0 4 360 168 
0.224976 3.92383 245.0 4 364 168 
2.94922 13.1953 194.0 4 360 172 
-1.02441 2.67383 250.0 4 364 172 
1.17676 1.72461 240.0 8 368 160 
-8.10623e-06 -0.0 255.0 4 376 160 
-2.72461 -12.625 262.0 4 380 160 
-8.10623e-06 -0.0 255.0 4 376 164 
-1.89941 -12.8438 258.0 4 380 164 
-0.0 2.5034e-06 254.0 8 368 168 
-8.10623e-06 -0.0 255.0 4 376 168 
0.649902 -13.3438 246.0 4 380 168 
-8.10623e-06 -0.0 255.0 4 376 172 
2.47461 -9.92188 250.0 4 380 172 
-1.875 5.37109 124.0 4 352 176 
-1.74902 15.1484 158.0 4 356 176 
6.69922 4.09766 125.0 4 352 180 
3.72461 16.7188 148.0 4 356 180 
1.0625 3.68359 231.0 8 360 176 
5.96094 9.16406 155.0 8 352 184 
0.276611 0.375 252.0 8 360 184 
-1.13086 -0.919434 260.0 8 368 176 
-8.10623e-06 -0.0 255.0 4 376 176 
0.799805 -9.44531 254.0 4 380 176 
-10.4688 -3.02344 253.0 4 376 180 
-9.82031 -3.32422 243.0 4 380 180 
-0.0357056 -5.48047 260.0 8 368 184 
4.3125 -0.590332 213.0 8 376 184 
-1.66893e-06 -2.00272e-05 255.0 32 256 192 
-0.0625 -0.0614319 256.0 32 288 192 
-1.66893e-06 -2.00272e-05 255.0 32 256 224 
5.1856e-06 -3.75509e-06 255.0 16 288 224 
0.0562439 -0.532227 256.0 16 304 224 
-0.539062 -0.375977 260.0 16 288 240 
-1.52734 -2.42969 264.0 8 304 240 
-8.65625 -7.82031 271.0 8 312 240 
-1.77441 -3.02344 259.0 4 304 248 
-7.89844 -7.14844 247.0 4 308 248 
-13.0234 -4.57422 245.0 4 304 252 
-12.4922 -9.49219 211.0 2 308 252 
-6.0 -4.0 194.0 2 310 252 
7.5 -2.49805 189.0 2 308 254 
16.5 3.5 190.0 2 310 254 
-8.64844 -7.19922 222.0 4 312 248 
-2.77344 -7.625 184.0 4 316 248 
8.94531 0.449951 180.0 4 312 252 
2.44922 -9.0 184.0 4 316 252 
-0.502441 -0.141357 257.0 16 320 192 
5.54688 -12.2969 238.0 4 336 192 
3.75 -16.1406 174.0 4 340 192 
-0.75 -10.8438 256.0 4 336 196 
7.82422 -15.125 192.0 4 340 196 
-0.949707 7.19922 132.0 4 344 192 
-6.59766 7.09766 165.0 4 348 192 
6.14844 -1.74902 135.0 4 344 196 
0.774902 2.97461 138.0 4 348 196 
-0.520508 -10.5625 249.0 8 336 200 
0.162109 -2.0293 166.0 8 344 200 
-2.04297 -7.24219 261.0 8 320 208 
-5.74219 0.292969 223.0 8 328 208 
2.76953 1.04102 223.0 8 320 216 
0.618652 -11.6094 241.0 8 328 216 
-6.38281 -5.19141 213.0 8 336 208 
0.699707 -0.349854 155.0 4 344 208 
8.21875 10.6172 150.0 4 348 208 
5.59766 8.29688 150.0 4 344 212 
7.07422 8.96875 182.0 4 348 212 
1.03125 -0.0758667 152.0 8 336 216 
2.09961 8.83594 174.0 8 344 216 
-3.46289 12.0 186.0 8 352 192 
-0.0 2.5034e-06 254.0 8 360 192 
4.09766 12.4453 140.0 4 352 200 
4.17188 15.5234 206.0 4 356 200 
8.84375 12.4453 170.0 4 352 204 
0.924805 5.07422 241.0 4 356 204 
-0.0 2.5034e-06 254.0 8 360 200 
0.749512 -1.1582 252.0 16 368 192 
2.23633 6.33594 210.0 8 352 208 
-0.0 2.5034e-06 254.0 8 360 208 
2.59961 2.14844 239.0 4 352 216 
-0.149902 1.19922 252.0 4 356 216 
-11.0703 -3.07422 255.0 4 352 220 
-8.77344 5.875 245.0 4 356 220 
-0.104126 0.104126 254.0 8 360 216 
5.1856e-06 -3.75509e-06 255.0 16 368 208 
-0.949707 2.25 234.0 4 320 224 
-7.0 -2.09961 259.0 4 324 224 
-2.22461 -2.875 239.0 4 320 228 
-7.84766 -6.89844 235.0 4 324 228 
-6.10156 -8.39844 234.0 8 328 224 
-2.50586 -8.34375 233.0 8 320 232 
0.215698 -2.28125 159.0 8 328 232 
-0.145752 0.0357056 153.0 8 336 224 
-10.0234 10.375 178.0 4 344 224 
-8.67188 0.674805 220.0 4 348 224 
4.97266 6.27344 147.0 4 344 228 
0.199951 4.44922 180.0 4 348 228 
3.13086 5.99609 140.0 8 336 232 
5.98828 3.39258 179.0 8 344 232 
-8.82031 -6.97266 203.0 4 320 240 
-6.42188 -2.07422 177.0 4 324 240 
-2.69922 -2.74805 164.0 4 320 244 
3.07422 1.57422 150.0 4 324 244 
1.92676 0.486572 147.0 8 328 240 
3.5 5.10156 146.0 8 320 248 
9.86719 2.32422 157.0 4 328 248 
11.4688 7.87109 169.0 4 332 248 
-2.34961 3.34961 196.0 4 328 252 
-7.75 -1.69922 216.0 4 332 252 
3.875 6.79297 165.0 8 336 240 
0.113037 4.125 222.0 8 344 240 
-1.18262 3.24219 215.0 8 336 248 
1.92676 1.05469 231.0 8 344 248 
2.16406 6.18359 184.0 8 352 224 
0.391357 0.447754 251.0 8 360 224 
5.47266 10.0234 211.0 4 352 232 
1.4248 1.12402 249.0 4 356 232 
1.32422 1.47461 249.0 4 352 236 
-8.10623e-06 -0.0 255.0 4 356 236 
-0.0 2.5034e-06 254.0 8 360 232 
-0.0598145 -0.00725555 255.0 16 368 224 
-1.38184 -0.370361 258.0 8 352 240 
-6.60547 -3.19727 273.0 8 360 240 
-0.568359 -1.57422 242.0 8 352 248 
-4.02344 -7.47266 229.0 4 360 248 
-1.5498 0.199951 204.0 4 364 248 
-1.52441 -10.4219 216.0 4 360 252 
-5.44922 4.44922 187.0 4 364 252 
-10.4688 -2.22461 260.0 4 368 240 
-6.79688 -1.49902 247.0 4 372 240 
-3.09961 3.04883 212.0 4 368 244 
1.52441 4.32422 217.0 4 372 244 
0.105652 0.938965 248.0 8 376 240 
-2.73828 4.62891 212.0 8 368 248 
-0.974609 0.524902 254.0 4 376 248 
-1.1748 -9.71875 260.0 4 380 248 
-4.19922 5.19922 234.0 4 376 252 
1.5498 -9.94531 246.0 4 380 252 
1.75391 -0.697754 216.0 8 384 128 
-1.39062 -6.96484 223.0 8 392 128 
0.083313 -4.62891 239.0 8 384 136 
-1.47461 -6.875 206.0 4 392 136 
0.224976 3.82422 170.0 4 396 136 
-1.0 -7.04688 198.0 4 392 140 
4.09766 4.89844 166.0 4 396 140 
-0.0372009 1.34961 171.0 8 400 128 
-1.18652 0.892578 191.0 8 408 128 
-3.17383 -4.17188 198.0 4 400 136 
1.74902 4.19922 170.0 4 404 136 
3.52344 -4.72266 185.0 4 400 140 
1.39941 6.79688 176.0 4 404 140 
1.63672 -2.69531 192.0 8 408 136 
-2.61133 -6.51562 247.0 8 384 144 
0.327393 3.91797 175.0 8 392 144 
-2.99023 -6.73828 227.0 8 384 152 
-1.23438 4.38672 173.0 8 392 152 
-1.34277 -1.45312 196.0 8 400 144 
0.0499878 1.64941 208.0 4 408 144 
1.27441 -6.125 191.0 4 412 144 
-2.09961 5.19922 198.0 4 408 148 
-1.94922 -7.59766 197.0 4 412 148 
-1.95801 -2.55859 194.0 8 400 152 
-2.34961 -1.01562 184.0 8 408 152 
-0.399902 -1.94922 187.0 4 416 128 
6.02344 6.62109 175.0 4 420 128 
1.14941 0.749512 180.0 4 416 132 
1.22461 11.3203 189.0 4 420 132 
5.77344 10.6719 212.0 4 424 128 
-8.10623e-06 -0.0 255.0 4 428 128 
1.1748 5.07422 241.0 4 424 132 
-8.10623e-06 -0.0 255.0 4 428 132 
-0.12793 7.13672 177.0 8 416 136 
0.233521 0.777832 250.0 8 424 136 
5.1856e-06 -3.75509e-06 255.0 16 432 128 
-1.9834 2.85742 180.0 8 416 144 
-9.04688 8.04688 238.0 4 424 144 
-0.0749512 0.0749512 254.0 4 428 144 
-0.724609 13.9688 189.0 4 424 148 
-1.75 1.74902 253.0 4 428 148 
0.456787 2.23828 168.0 8 416 152 
1.0498 12.0938 189.0 4 424 152 
1.32422 3.72461 244.0 4 428 152 
4.89844 9.5 188.0 4 424 156 
-0.924805 4.57422 245.0 4 428 156 
5.1856e-06 -3.75509e-06 255.0 16 432 144 
2.00391 -3.49805 193.0 8 384 160 
0.715332 -1.35254 178.0 8 392 160 
-0.288574 -4.69531 218.0 8 384 168 
-0.819824 -1.54883 181.0 8 392 168 
0.0592651 -0.426758 169.0 16 400 160 
-1.74023 -4.19531 208.0 8 384 176 
1.10254 -0.174072 172.0 8 392 176 
5.95703 -5.32031 198.0 8 384 184 
3.06445 -0.223145 171.0 8 392 184 
2.76758 0.232056 170.0 8 400 176 
2.32422 7.67188 168.0 4 408 176 
-1.0498 -8.79688 200.0 4 412 176 
4.24609 2.5 187.0 4 408 180 
0.349854 -8.44531 200.0 4 412 180 
2.66797 3.89258 173.0 8 400 184 
0.760254 -3.41406 201.0 8 408 184 
-1.9248 1.9248 170.0 4 416 160 
0.474854 15.6172 171.0 4 420 160 
-1.24902 6.94922 160.0 4 416 164 
-4.99609 7.39844 186.0 4 420 164 
6.04688 4.09766 223.0 4 424 160 
0.924805 1.125 250.0 4 428 160 
-10.5938 7.09766 228.0 4 424 164 
-5.59766 2.59961 254.0 4 428 164 
-1.59766 1.37109 169.0 8 416 168 
0.202271 8.44531 176.0 8 424 168 
-0.0463867 0.10907 254.0 16 432 160 
1.43359 3.35352 160.0 8 416 176 
3.57422 10.9688 186.0 4 424 176 
2.74805 5.59766 237.0 4 428 176 
-1.09961 11.2422 199.0 4 424 180 
-9.27344 0.774902 253.0 4 428 180 
-0.876465 1.54004 172.0 8 416 184 
-0.724609 8.36719 193.0 4 424 184 
-4.52344 -3.97461 221.0 4 428 184 
-2.04883 5.54688 185.0 4 424 188 
-2.92383 -6.52344 208.0 4 428 188 
-1.69434 1.15625 254.0 8 432 176 
-0.0 2.5034e-06 254.0 8 440 176 
-11.1953 2.44922 213.0 4 432 184 
-15.9922 6.64844 236.0 4 436 184 
-2.17383 -1.02441 179.0 4 432 188 
-6.09766 2.24805 183.0 4 436 188 
-11.0781 1.58398 240.0 8 440 184 
-1.66893e-06 -2.00272e-05 255.0 32 448 128 
-1.66893e-06 -2.00272e-05 255.0 32 480 128 
5.1856e-06 -3.75509e-06 255.0 16 448 160 
5.1856e-06 -3.75509e-06 255.0 16 464 160 
-0.0208282 -0.020813 255.0 8 448 176 
-8.10623e-06 -0.0 255.0 4 456 176 
-0.674805 -0.524902 256.0 4 460 176 
-7.84766 -7.44922 267.0 4 456 180 
-11.8672 -0.0749512 242.0 4 460 180 
-15.0703 -0.624512 258.0 4 448 184 
-16.3906 -5.74609 251.0 4 452 184 
0.5 -2.49805 193.0 4 448 188 
5.09766 1.74902 180.0 4 452 188 
-0.336182 -0.330322 201.0 8 456 184 
-8.4375 0.575684 258.0 8 464 176 
-5.46484 0.84668 260.0 8 472 176 
0.0163727 1.50391 196.0 8 464 184 
2.88672 0.511719 200.0 8 472 184 
5.1856e-06 -3.75509e-06 255.0 16 480 160 
5.1856e-06 -3.75509e-06 255.0 16 496 160 
-0.172607 0.184448 254.0 8 480 176 
-0.072876 0.0372009 255.0 8 488 176 
-5.10156 3.64258 230.0 8 480 184 
-1.19727 3.2207 241.0 8 488 184 
5.1856e-06 -3.75509e-06 255.0 16 496 176 
0.849609 -1.0498 254.0 4 384 192 
9.07031 -7.22266 231.0 4 388 192 
-1.07422 2.52344 247.0 4 384 196 
0.524902 -0.574707 253.0 4 388 196 
6.51953 -4.63281 202.0 8 392 192 
0.226074 0.595215 250.0 8 384 200 
2.00781 -3.49805 250.0 8 392 200 
4.57422 9.375 184.0 4 400 192 
1.44922 4.84766 226.0 4 404 192 
2.84961 8.89844 203.0 4 400 196 
-1.14941 -1.69922 244.0 4 404 196 
1.42773 -3.13672 227.0 8 408 192 
-1.00977 -2.17969 237.0 8 400 200 
-0.474854 3.42383 212.0 4 408 200 
-2.19922 -6.75 235.0 4 412 200 
-3.14844 1.69922 212.0 4 408 204 
-7.09766 -9.14844 223.0 4 412 204 
0.171021 -0.353027 255.0 16 384 208 
-1.06543 -4.51172 243.0 8 400 208 
-1.9248 -4.5 207.0 8 408 208 
3.16797 -2.07812 231.0 8 400 216 
0.236572 -6.21875 215.0 8 408 216 
0.549805 -6.75 188.0 4 416 192 
-0.899902 2.39844 175.0 4 420 192 
-1.1748 -13.625 202.0 4 416 196 
-1.14941 2.0 163.0 4 420 196 
-1.19629 -1.125 185.0 8 424 192 
-2.79883 -10.1953 192.0 4 416 200 
0.449951 2.25 160.0 4 420 200 
1.84961 -5.14844 171.0 4 416 204 
-8.10623e-06 3.74805 162.0 4 420 204 
1.44727 1.47461 173.0 8 424 200 
0.488037 0.960938 164.0 8 432 192 
1.22461 2.17383 174.0 4 440 192 
4.47266 3.02344 178.0 4 444 192 
2.14844 8.0 176.0 4 440 196 
7.94922 6.54688 201.0 4 444 196 
6.17578 5.60156 157.0 8 432 200 
10.9922 6.29688 193.0 4 440 200 
3.875 4.42188 234.0 4 444 200 
-2.89844 2.79883 238.0 4 440 204 
-0.449951 1.69922 251.0 4 444 204 
-0.654297 0.886719 170.0 8 416 208 
1.85645 3.0918 181.0 8 424 208 
-0.0104141 1.80469 162.0 8 416 216 
-3.67383 0.879395 196.0 8 424 216 
0.151733 2.44336 212.0 8 432 208 
-2.55664 0.816895 235.0 8 440 208 
-5.17188 0.0446167 210.0 8 432 216 
-5.13281 0.758789 213.0 8 440 216 
-0.0 2.5034e-06 254.0 8 384 224 
-2.32422 -1.62402 258.0 4 392 224 
-6.54688 -0.699707 257.0 4 396 224 
0.174927 -5.125 255.0 4 392 228 
-5.62109 -4.47266 235.0 4 396 228 
-0.0 2.5034e-06 254.0 8 384 232 
-2.54492 -8.71094 261.0 8 392 232 
-7.95312 -4.46484 267.0 8 400 224 
-4.69922 -10.3984 220.0 4 408 224 
2.375 -1.77441 177.0 4 412 224 
-5.09766 -2.0 185.0 4 408 228 
-2.19922 0.599609 184.0 4 412 228 
-2.6543 -4.62109 202.0 8 400 232 
0.617188 0.90918 160.0 8 408 232 
-6.25 -5.0 264.0 4 384 240 
-16.625 -3.17383 259.0 4 388 240 
-11.2188 -12.7734 248.0 4 384 244 
-6.0 -0.449951 196.0 4 388 244 
-6.02344 -2.22461 229.0 4 392 240 
3.52344 -4.42188 206.0 4 396 240 
-6.44922 1.89941 202.0 4 392 244 
-3.64844 1.94922 209.0 4 396 244 
-0.625 -12.3203 210.0 4 384 248 
-1.625 -1.125 174.0 4 388 248 
-1.27441 -9.86719 197.0 4 384 252 
2.54883 1.34961 162.0 4 388 252 
-1.02344 4.94141 173.0 8 392 248 
1.07812 -3.83008 193.0 8 400 240 
1.75 4.46094 158.0 8 408 240 
-3.60938 -5.65234 213.0 8 400 248 
0.40625 8.125 158.0 8 408 248 
1.9707 2.86523 156.0 16 416 224 
5.26562 0.757324 181.0 8 432 224 
-0.0249939 -1.82422 190.0 4 440 224 
-3.87305 -2.07422 194.0 4 444 224 
7.37109 -6.47266 207.0 4 440 228 
5.49609 0.249878 182.0 4 444 228 
2.02344 -0.334717 228.0 8 432 232 
1.7002 -2.37891 215.0 8 440 232 
4.41406 5.69141 186.0 8 416 240 
3.4082 -0.138306 236.0 8 424 240 
0.529297 4.18359 221.0 8 416 248 
0.0803223 -0.136841 254.0 8 424 248 
0.351074 0.142822 250.0 8 432 240 
4.10938 -3.95117 234.0 8 440 240 
1.37598 -0.379395 247.0 8 432 248 
1.06934 0.700684 246.0 8 440 248 
8.74219 2.13086 194.0 8 448 192 
6.17969 -3.98633 221.0 8 456 192 
-0.0 2.5034e-06 254.0 8 448 200 
0.609863 -0.615723 253.0 8 456 200 
4.50391 5.12109 182.0 8 464 192 
2.67773 0.407715 239.0 8 472 192 
2.04883 1.41602 238.0 8 464 200 
-0.145752 -0.122009 255.0 8 472 200 
-4.99609 2.53516 249.0 8 448 208 
-0.688965 0.700684 253.0 8 456 208 
-4.33984 2.89453 205.0 8 448 216 
-2.07422 4.82812 232.0 8 456 216 
-0.0 2.5034e-06 254.0 8 464 208 
0.0282593 -3.98633 261.0 8 472 208 
-2.5625 -1.85254 265.0 8 464 216 
-4.95312 -3.00195 260.0 8 472 216 
3.125 -4.625 217.0 4 480 192 
-1.875 1.77441 212.0 4 484 192 
3.57422 -12.7188 243.0 4 480 196 
-1.0498 1.2998 207.0 4 484 196 
-1.65527 5.09375 219.0 8 488 192 
0.824707 -14.2188 254.0 4 480 200 
3.04883 5.24609 197.0 4 484 200 
-4.69922 -10.5469 249.0 4 480 204 
0.699707 5.24609 211.0 4 484 204 
0.614258 1.68262 223.0 8 488 200 
-0.496826 0.452637 253.0 16 496 192 
-0.306396 0.729004 216.0 8 480 208 
1.21094 2.94336 227.0 8 488 208 
-0.325684 2.96094 211.0 8 480 216 
0.0982056 0.598145 251.0 8 488 216 
0.251465 0.249023 247.0 16 496 208 
0.355469 3.80664 180.0 8 448 224 
-0.184448 3.60352 214.0 8 456 224 
4.26953 4.64062 189.0 8 448 232 
1.46387 1.43359 242.0 8 456 232 
1.4209 -2.17578 247.0 16 464 224 
0.770996 0.905273 239.0 16 448 240 
0.307861 -0.347656 254.0 16 464 240 
0.776367 -0.401611 220.0 8 480 224 
-3.3418 2.82812 233.0 8 488 224 
4.92578 0.191895 217.0 8 480 232 
2.41992 1.35547 226.0 8 488 232 
0.679199 0.678711 239.0 16 496 224 
0.0476074 -0.36377 256.0 16 480 240 
-0.234619 0.521973 250.0 16 496 240 
0.0565186 0.0829468 18.0 64 0 256 
0.226685 1.21484 14.0 16 64 256 
1.3584 6.15625 31.0 8 80 256 
4.53906 1.05273 61.0 8 88 256 
2.64062 5.32812 53.0 8 80 264 
-1.30762 0.611328 98.0 8 88 264 
-0.405762 2.11133 22.0 16 64 272 
-3.02344 6.17188 83.0 4 80 272 
-5.625 -3.22461 100.0 4 84 272 
-5.59766 2.54883 65.0 4 80 276 
3.64844 4.54688 66.0 4 84 276 
2.0625 3.91211 73.0 8 88 272 
4.44922 6.19922 48.0 4 80 280 
0.0999756 3.04883 85.0 4 84 280 
-0.125 6.57422 63.0 4 80 284 
-2.77344 -4.02344 92.0 4 84 284 
-2.9375 2.98438 94.0 8 88 280 
6.20703 2.86719 74.0 8 96 256 
3.83984 -0.141357 105.0 8 104 256 
-0.217163 3.51367 115.0 8 96 264 
2.35547 0.929688 135.0 8 104 264 
4.02344 1.31641 99.0 8 112 256 
2.72461 0.830078 117.0 8 120 256 
5.80469 1.06348 132.0 8 112 264 
3.50977 -1.26562 136.0 8 120 264 
2.14648 5.73438 95.0 16 96 272 
1.33398 -1.65527 187.0 8 112 272 
4.94141 1.89844 163.0 8 120 272 
0.072876 1.10254 184.0 8 112 280 
3.17969 6.82422 186.0 8 120 280 
-0.990723 -0.734863 26.0 8 64 288 
1.49512 3.33984 22.0 8 72 288 
2.1875 1.24805 17.0 8 64 296 
4.48438 2.52344 31.0 8 72 296 
-8.46875 2.42383 64.0 4 80 288 
-5.89844 1.14941 75.0 4 84 288 
4.32422 -0.674805 46.0 4 80 292 
-0.299805 -2.6226e-06 49.0 4 84 292 
-4.30859 8.5 62.0 8 88 288 
-2.97461 -0.674805 60.0 4 80 296 
1.64941 1.74902 49.0 4 84 296 
6.14844 -4.49609 58.0 4 80 300 
4.57422 8.32031 49.0 4 84 300 
7.35938 5.66016 53.0 8 88 296 
0.838867 2.43359 28.0 8 64 304 
3.19922 8.09375 63.0 4 72 304 
-1.0498 -2.74805 90.0 4 76 304 
0.224976 8.57031 74.0 4 72 308 
3.49805 -8.24219 94.0 4 76 308 
0.212769 3.09375 32.0 8 64 312 
-1.60254 6.17188 71.0 8 72 312 
0.0342102 3.33398 64.0 8 80 304 
-3.70312 5.19922 111.0 8 88 304 
4.66406 0.410645 80.0 8 80 312 
-0.156128 -1.17676 101.0 8 88 312 
-0.590332 8.64062 119.0 8 96 288 
0.568359 2.77539 187.0 8 104 288 
2.72461 9.52344 107.0 4 96 296 
-1.4248 12.8203 155.0 4 100 296 
11.7969 7.29688 133.0 4 96 300 
9.5 3.75 159.0 4 100 300 
0.269287 6.74609 194.0 8 104 296 
3.77148 4.62891 177.0 8 112 288 
8.25 6.69922 210.0 4 120 288 
0.574707 0.974609 251.0 4 124 288 
0.549805 0.849609 252.0 4 120 292 
-8.10623e-06 -0.0 255.0 4 124 292 
3.2832 2.06055 228.0 8 112 296 
-0.0 2.5034e-06 254.0 8 120 296 
-6.29297 8.25 163.0 8 96 304 
-0.399902 4.84766 206.0 4 104 304 
0.374756 7.27344 224.0 4 108 304 
-8.52344 2.97461 217.0 4 104 308 
-13.5703 -2.27344 232.0 4 108 308 
-7.14844 4.89844 113.0 4 96 312 
-13.1719 5.42188 141.0 4 100 312 
-1.99902 4.74609 86.0 4 96 316 
1.1748 2.97461 95.0 4 100 316 
-19.0 2.44922 174.0 4 104 312 
-15.0938 -1.34961 173.0 4 108 312 
0.524902 4.52344 106.0 4 104 316 
8.44531 -0.749512 112.0 4 108 316 
-1.64941 0.649902 255.0 4 112 304 
-0.149902 -0.0499878 255.0 4 116 304 
-16.2969 2.24805 228.0 4 112 308 
-18.2344 1.69922 235.0 4 116 308 
-0.674805 -0.375 256.0 4 120 304 
-0.974609 -0.0750122 255.0 4 124 304 
-18.25 -3.54883 240.0 4 120 308 
-18.3594 4.72266 224.0 4 124 308 
-16.6719 -0.874512 164.0 4 112 312 
-14.9688 3.87305 157.0 4 116 312 
7.62109 3.22461 106.0 4 112 316 
11.2422 6.54688 113.0 4 116 316 
-14.5234 -2.92383 167.0 4 120 312 
-12.125 1.77441 154.0 4 124 312 
14.9688 -1.87402 131.0 4 120 316 
16.8125 2.27344 124.0 4 124 316 
-0.00743866 -0.0226288 24.0 32 0 320 
-0.0219574 0.035553 23.0 16 32 320 
0.0976562 0.569336 22.0 16 48 320 
-0.146118 0.135376 24.0 16 32 336 
0.294434 0.693359 26.0 8 48 336 
1.9248 0.974609 24.0 4 56 336 
6.77344 12.4688 26.0 4 60 336 
3.04883 -0.0999756 28.0 4 56 340 
1.84961 11.5938 36.0 4 60 340 
0.541504 1.3418 26.0 8 48 344 
1.75977 9.25781 21.0 8 56 344 
0.0866089 0.0852051 20.0 32 0 352 
-0.209106 0.217163 23.0 16 32 352 
-1.16309 0.681152 32.0 8 48 352 
-0.520508 12.2109 24.0 8 56 352 
-0.113037 1.69043 23.0 8 48 360 
0.177002 10.8125 27.0 8 56 360 
0.0570679 0.19873 21.0 16 32 368 
2.23633 2.64844 13.0 8 48 368 
2.67969 5.00781 39.0 8 56 368 
-0.130859 2.91211 28.0 8 48 376 
-0.72168 5.34375 69.0 8 56 376 
0.224243 3.44727 39.0 16 64 320 
3.44922 -0.538574 99.0 8 80 320 
6.29688 1.9834 88.0 8 88 320 
-1.27441 14.4688 109.0 4 80 328 
11.5938 -2.94922 141.0 4 84 328 
0.924805 14.7188 99.0 4 80 332 
6.87109 12.1719 155.0 4 84 332 
6.24609 -1.59961 134.0 4 88 328 
0.199951 0.149902 142.0 4 92 328 
10.4688 -10.1719 184.0 4 88 332 
1.14941 -6.74609 153.0 4 92 332 
6.72266 1.6748 75.0 4 64 336 
4.92188 -1.4248 80.0 4 68 336 
-3.19922 6.69922 89.0 4 64 340 
2.47461 0.874512 103.0 4 68 340 
3.5332 0.849609 88.0 8 72 336 
3.0332 2.84375 92.0 8 64 344 
5.66797 2.91406 97.0 8 72 344 
0.524902 13.0234 103.0 4 80 336 
-9.19531 13.5938 169.0 4 84 336 
3.02344 6.47266 113.0 4 80 340 
-3.625 4.47266 146.0 4 84 340 
-7.375 -9.32031 208.0 4 88 336 
-1.37402 -8.92188 162.0 4 92 336 
-5.39844 -0.0499878 168.0 4 88 340 
1.59961 -2.94922 146.0 4 92 340 
5.70703 1.41211 128.0 8 80 344 
6.06641 0.28125 145.0 8 88 344 
8.04688 0.849609 95.0 4 96 320 
5.92188 1.37402 113.0 4 100 320 
1.14941 -5.24609 134.0 4 96 324 
0.0499878 5.49609 126.0 4 100 324 
8.96094 8.1875 108.0 8 104 320 
-0.5 -6.39844 141.0 4 96 328 
1.34961 11.5469 119.0 4 100 328 
-0.849609 -0.5 131.0 4 96 332 
-0.25 10.7969 133.0 4 100 332 
2.62305 16.7656 160.0 4 104 328 
4.47266 5.57422 226.0 4 108 328 
1.47461 10.0703 181.0 4 104 332 
-2.84961 11.7969 226.0 4 108 332 
10.6562 1.17676 161.0 8 112 320 
6.46875 -1.04297 184.0 8 120 320 
0.632324 0.266357 250.0 8 112 328 
2.33594 -0.380859 243.0 8 120 328 
3.02734 1.8252 123.0 8 96 336 
-9.375 8.86719 174.0 4 104 336 
-14.6953 7.19922 214.0 4 108 336 
2.97461 1.4248 146.0 4 104 340 
-3.82422 0.974609 163.0 4 108 340 
2.03906 1.76562 159.0 8 96 344 
2.67969 -0.9375 172.0 8 104 344 
-11.0078 5.51953 230.0 8 112 336 
-0.674805 0.824707 254.0 4 120 336 
-8.10623e-06 -0.0 255.0 4 124 336 
-8.69531 9.0 238.0 4 120 340 
-0.399902 0.449951 254.0 4 124 340 
3.25195 4.14844 169.0 8 112 344 
1.89941 8.19531 202.0 4 120 344 
-2.59961 4.89844 245.0 4 124 344 
0.0999756 3.5 220.0 4 120 348 
-5.29688 3.09961 235.0 4 124 348 
3.45508 4.26172 115.0 8 64 352 
5.35547 6.73828 139.0 8 72 352 
-0.645508 8.6875 126.0 8 64 360 
3.10938 4.20703 175.0 8 72 360 
6.92578 1.71191 179.0 8 80 352 
8.39844 6.29688 202.0 4 88 352 
15.2969 -4.24609 210.0 4 92 352 
5.29688 6.44922 225.0 4 88 356 
0.524902 0.524902 252.0 4 92 356 
1.51562 5.61328 214.0 8 80 360 
-0.0 2.5034e-06 254.0 8 88 360 
-5.80078 11.4531 115.0 8 64 368 
-5.18359 4.65625 198.0 8 72 368 
1.34961 -2.0 94.0 4 64 376 
-10.4453 7.89844 111.0 4 68 376 
-1.09961 1.64941 98.0 4 64 380 
11.3203 3.27344 82.0 4 68 380 
-11.7734 7.92188 150.0 4 72 376 
-9.89844 6.19922 181.0 4 76 376 
4.24609 1.5 109.0 4 72 380 
-6.77344 6.625 132.0 4 76 380 
-3.39844 6.58594 222.0 8 80 368 
-0.0 2.5034e-06 254.0 8 88 368 
-4.48438 6.96094 195.0 8 80 376 
-2.07031 3.08594 245.0 8 88 376 
10.625 -1.79297 193.0 8 96 352 
6.53516 -1.50098 196.0 8 104 352 
-0.0 2.5034e-06 254.0 8 96 360 
1.49512 -0.912109 250.0 8 104 360 
3.08594 0.4375 210.0 16 112 352 
5.1856e-06 -3.75509e-06 255.0 16 96 368 
-0.0 2.5034e-06 254.0 8 112 368 
-0.0 2.5034e-06 254.0 8 120 368 
-0.0 2.5034e-06 254.0 8 112 376 
-8.10623e-06 -0.0 255.0 4 120 376 
-1.125 -0.874512 257.0 4 124 376 
-0.824707 -0.824707 256.0 4 120 380 
-11.3203 -8.52344 263.0 4 124 380 
3.02734 -2.17578 121.0 8 128 256 
0.375 1.38965 110.0 8 136 256 
5.07031 1.38477 125.0 8 128 264 
4.05859 -2.75586 130.0 8 136 264 
-6.13281 1.83887 145.0 8 144 256 
-9.03906 6.68359 162.0 8 152 256 
2.47266 -0.75293 120.0 8 144 264 
-0.774902 0.0749512 112.0 4 152 264 
-8.57031 6.52344 128.0 4 156 264 
4.42188 -2.72461 124.0 4 152 268 
2.79883 1.25 115.0 4 156 268 
7.83594 3.13672 164.0 8 128 272 
5.375 -11.5703 181.0 4 136 272 
2.77344 0.124939 136.0 4 140 272 
4.14844 -14.0938 204.0 4 136 276 
4.02344 -1.12402 144.0 4 140 276 
2.22266 0.684082 240.0 8 128 280 
8.96875 -13.4219 220.0 4 136 280 
10.125 -1.52441 161.0 4 140 280 
5.32422 -3.97461 247.0 4 136 284 
16.0938 -2.94922 204.0 4 140 284 
3.59766 0.226074 144.0 8 144 272 
2.13086 -1.05176 137.0 8 152 272 
9.44531 -0.28418 178.0 8 144 280 
7.85156 -5.75 174.0 8 152 280 
-4.84766 14.3984 217.0 4 160 256 
-8.10623e-06 -0.0 255.0 4 164 256 
-8.61719 17.0156 185.0 4 160 260 
-3.82422 4.37109 249.0 4 164 260 
-0.0 2.5034e-06 254.0 8 168 256 
-8.02344 12.4922 168.0 8 160 264 
-3.82422 3.52344 251.0 4 168 264 
-8.10623e-06 -0.0 255.0 4 172 264 
-9.04688 7.64844 231.0 4 168 268 
-2.02344 2.57422 251.0 4 172 268 
-0.0 2.5034e-06 254.0 8 176 256 
-8.10623e-06 -0.0 255.0 4 184 256 
-1.64941 -1.64941 258.0 4 188 256 
-2.02344 -2.17383 259.0 4 184 260 
-10.6172 -11.9688 260.0 4 188 260 
-0.0 2.5034e-06 254.0 8 176 264 
-5.15625 -11.7266 262.0 8 184 264 
-1.0498 2.04883 126.0 4 160 272 
-8.09375 10.3438 152.0 4 164 272 
1.94922 -3.69922 135.0 4 160 276 
1.47461 4.92188 130.0 4 164 276 
-4.64844 12.0938 189.0 4 168 272 
0.324951 7.42188 236.0 4 172 272 
-3.29883 14.9922 166.0 4 168 276 
-3.87305 8.77344 237.0 4 172 276 
1.6748 -4.82422 137.0 4 160 280 
-2.72461 4.67188 132.0 4 164 280 
3.59961 -7.39844 149.0 4 160 284 
1.39941 0.849609 126.0 4 164 284 
-4.29688 11.9453 157.0 4 168 280 
-13.8984 4.49609 221.0 4 172 280 
-7.79688 6.09766 147.0 4 168 284 
-7.64844 2.14844 169.0 4 172 284 
-8.10623e-06 -0.0 255.0 4 176 272 
-3.02344 -6.47266 263.0 4 180 272 
-1.57422 0.224976 255.0 4 176 276 
-0.0 2.49147e-05 254.0 2 180 276 
-17.0 -35.0 243.0 2 182 276 
-20.0 -13.0 255.0 2 180 278 
3.49805 -10.5 199.0 2 182 278 
-7.29688 -9.84375 221.0 4 184 272 
-3.72461 -9.46875 176.0 4 188 272 
-4.87109 -9.82031 188.0 4 184 276 
-0.599609 -1.19922 147.0 4 188 276 
-16.8906 -2.39844 240.0 4 176 280 
-10.6719 -6.125 216.0 4 180 280 
-7.64844 -2.19922 174.0 4 176 284 
-7.52344 0.0749512 170.0 4 180 284 
-1.97559 -2.85938 160.0 8 184 280 
0.00276756 -0.00275421 254.0 16 128 288 
0.072876 -0.0104065 254.0 8 144 288 
5.82422 -6.17188 246.0 4 152 288 
10.7734 -8.07031 213.0 4 156 288 
-8.10623e-06 -0.0 255.0 4 152 292 
4.79688 -2.44922 246.0 4 156 292 
-0.0 2.5034e-06 254.0 8 144 296 
-0.093689 -0.093689 255.0 8 152 296 
-2.69922 -0.25 257.0 4 128 304 
-8.10623e-06 -0.0 255.0 4 132 304 
-18.8125 -5.02344 243.0 4 128 308 
-21.2656 3.17383 240.0 4 132 308 
-8.10623e-06 -0.0 255.0 4 136 304 
-8.10623e-06 -0.0 255.0 4 140 304 
-18.7188 -1.77441 247.0 4 136 308 
-16.8906 -0.649902 232.0 4 140 308 
-9.89844 1.64941 157.0 4 128 312 
-10.0469 1.09961 160.0 4 132 312 
10.3672 -0.874512 137.0 4 128 316 
9.32031 -2.02344 141.0 4 132 316 
-15.375 1.62402 175.0 4 136 312 
-8.625 0.0749512 166.0 4 140 312 
8.375 -0.424805 134.0 4 136 316 
-0.149902 0.949707 144.0 4 140 316 
-8.10623e-06 -0.0 255.0 4 144 304 
-1.27441 -0.374756 256.0 4 148 304 
-20.75 0.499756 235.0 4 144 308 
-18.1406 -1.2998 236.0 4 148 308 
-8.125 -3.17383 264.0 4 152 304 
-15.7188 -14.0703 263.0 4 156 304 
-13.5469 -4.29688 225.0 4 152 308 
-5.84766 -2.74805 194.0 4 156 308 
0.970215 1.71387 155.0 8 144 312 
2.18945 1.75586 153.0 8 152 312 
11.0938 -14.1484 181.0 4 160 288 
3.5 -5.14844 141.0 4 164 288 
9.42188 -14.875 224.0 4 160 292 
8.71875 -10.8203 163.0 4 164 292 
1.80762 2.14648 126.0 8 168 288 
2.54883 -9.94531 254.0 4 160 296 
3.39844 -12.9453 208.0 4 164 296 
-11.1953 -12.0 264.0 4 160 300 
-8.02344 -10.8203 203.0 4 164 300 
4.54688 -8.19531 156.0 4 168 296 
0.924805 6.62109 146.0 4 172 296 
-5.22266 -4.37109 156.0 4 168 300 
-4.75 3.09961 155.0 4 172 300 
4.9375 0.662109 126.0 8 176 288 
4.0 -2.37695 138.0 8 184 288 
-1.84473 4.24609 166.0 8 176 296 
-0.803223 -5.5 179.0 8 184 296 
-6.07422 -5.57422 202.0 4 160 304 
5.44922 -7.04688 167.0 4 164 304 
0.949707 2.09961 178.0 4 160 308 
1.0498 -3.34961 184.0 4 164 308 
3.32812 -0.0163574 140.0 8 168 304 
0.142822 2.70508 176.0 8 160 312 
6.99609 -1.69922 171.0 4 168 312 
4.04688 2.09961 157.0 4 172 312 
-2.52344 -4.62109 197.0 4 168 316 
8.96875 9.32031 161.0 4 172 316 
3.91211 3.40625 156.0 8 176 304 
-0.524902 -6.875 173.0 4 184 304 
3.87305 1.47461 147.0 4 188 304 
11.2188 -0.274902 169.0 4 184 308 
12.3438 1.94922 167.0 4 188 308 
7.54688 5.82812 175.0 8 176 312 
12.7188 0.224976 220.0 4 184 312 
10.3984 -2.75 224.0 4 188 312 
-8.10623e-06 -0.0 255.0 4 184 316 
-8.10623e-06 -0.0 255.0 4 188 316 
-8.625 -7.69531 250.0 8 192 256 
-5.49219 2.4375 184.0 8 200 256 
-2.83594 -2.2793 169.0 8 192 264 
0.577148 4.21094 141.0 8 200 264 
-6.12891 8.03125 219.0 8 208 256 
-0.694824 0.876465 252.0 8 216 256 
4.17188 8.17188 169.0 4 208 264 
3.27344 6.17188 199.0 4 212 264 
-3.92383 10.6172 195.0 4 208 268 
-1.77441 9.125 228.0 4 212 268 
0.644043 0.950684 247.0 8 216 264 
2.30078 2.4375 132.0 8 192 272 
-2.19922 0.899902 149.0 4 200 272 
-4.02344 2.67383 156.0 4 204 272 
5.72266 -4.77344 156.0 4 200 276 
5.29688 3.84961 140.0 4 204 276 
-3.18555 5.56641 147.0 8 192 280 
-2.32422 -5.57422 183.0 4 200 280 
1.0498 8.34375 160.0 4 204 280 
-4.09766 -3.75 157.0 4 200 284 
-6.0 6.54688 152.0 4 204 284 
-0.399902 9.74219 163.0 4 208 272 
-2.62305 14.9688 205.0 4 212 272 
7.92188 12.6172 159.0 4 208 276 
8.84375 11.2969 205.0 4 212 276 
-0.0 2.5034e-06 254.0 8 216 272 
-10.4609 5.27344 223.0 8 208 280 
-7.89453 0.542969 259.0 8 216 280 
-0.15564 0.158447 253.0 32 224 256 
1.48926 2.18164 130.0 8 192 288 
3.2793 2.45898 130.0 8 200 288 
2.80664 6.33594 131.0 8 192 296 
3.78516 -2.6543 168.0 8 200 296 
2.25 4.46875 148.0 8 208 288 
3.22461 8.92188 189.0 4 216 288 
11.0234 4.77344 217.0 4 220 288 
-1.07422 10.7734 204.0 4 216 292 
-1.07422 1.72461 252.0 4 220 292 
0.642578 6.94141 160.0 8 208 296 
5.49609 10.8438 205.0 4 216 296 
0.599609 0.599609 252.0 4 220 296 
-0.274902 7.82422 235.0 4 216 300 
-8.10623e-06 -0.0 255.0 4 220 300 
5.9375 6.41016 150.0 8 192 304 
8.97656 0.723145 189.0 8 200 304 
8.77344 -2.82422 209.0 4 192 312 
6.72266 8.42188 218.0 4 196 312 
4.375 -0.824707 245.0 4 192 316 
0.524902 0.524902 252.0 4 196 316 
-0.0 2.5034e-06 254.0 8 200 312 
9.52344 -3.32422 185.0 4 208 304 
5.22266 9.42188 183.0 4 212 304 
11.0703 -1.02441 224.0 4 208 308 
7.44922 0.949707 219.0 4 212 308 
0.574219 0.904297 248.0 8 216 304 
0.104126 -0.113037 254.0 8 208 312 
-1.93848 0.816895 255.0 8 216 312 
-0.104797 -0.00555801 255.0 32 224 288 
8.67969 0.841797 169.0 8 128 320 
6.33203 -5.17188 178.0 8 136 320 
0.917969 -0.0609741 250.0 8 128 328 
8.54688 -3.79883 237.0 4 136 328 
14.4688 -4.12109 203.0 4 140 328 
-8.10623e-06 -0.0 255.0 4 136 332 
0.149902 -0.149902 254.0 4 140 332 
4.08203 4.63672 156.0 8 144 320 
8.22656 0.798828 176.0 8 152 320 
11.5703 0.674805 194.0 4 144 328 
8.24219 7.99609 211.0 4 148 328 
4.02344 -0.224976 245.0 4 144 332 
0.674805 0.624512 252.0 4 148 332 
2.39844 -0.999512 250.0 4 152 328 
-1.37402 -7.57422 242.0 4 156 328 
-8.10623e-06 -0.0 255.0 4 152 332 
-4.375 -16.7188 250.0 4 156 332 
-0.147583 0.131714 254.0 16 128 336 
-0.0 2.5034e-06 254.0 8 144 336 
-2.07422 -3.92383 260.0 4 152 336 
-1.12402 -11.3672 221.0 4 156 336 
-0.924805 -8.42188 261.0 4 152 340 
1.89941 -2.79883 207.0 4 156 340 
-0.400146 -0.325684 256.0 8 144 344 
1.04004 -6.72266 247.0 8 152 344 
1.55762 -4.03125 207.0 8 160 320 
2.89258 4.76172 175.0 8 168 320 
-6.125 -8.07031 217.0 4 160 328 
3.39844 8.94531 179.0 4 164 328 
-0.699707 5.30481e-06 188.0 4 160 332 
0.974609 4.77344 201.0 4 164 332 
3.58594 3.67773 206.0 8 168 328 
-0.958008 5.38281 226.0 8 176 320 
-0.0 2.5034e-06 254.0 8 184 320 
1.66504 1.41211 240.0 8 176 328 
-0.0 2.5034e-06 254.0 8 184 328 
0.517578 1.94043 189.0 8 160 336 
-3.8418 5.39062 224.0 8 168 336 
3.58008 -0.608398 195.0 8 160 344 
2.86133 6.27344 192.0 8 168 344 
0.00248909 0.148804 253.0 16 176 336 
-0.148682 1.41895 225.0 8 128 352 
-8.21094 -4.04688 266.0 8 136 352 
2.57422 0.224609 239.0 8 128 360 
2.12305 -11.875 236.0 4 136 360 
-1.07422 -5.17188 188.0 4 140 360 
-5.17188 -14.3672 251.0 4 136 364 
0.324951 -2.92383 181.0 4 140 364 
-14.1484 -3.14844 252.0 4 144 352 
-6.37109 5.77344 229.0 4 148 352 
-4.34766 1.25 190.0 4 144 356 
1.6748 14.3672 191.0 4 148 356 
0.749512 0.285645 249.0 8 152 352 
2.90625 9.92188 160.0 8 144 360 
0.104126 0.145752 253.0 8 152 360 
-8.10623e-06 -0.0 255.0 4 128 368 
-6.67188 -10.1719 267.0 4 132 368 
-2.44922 -3.34961 260.0 4 128 372 
-8.79688 -14.7969 244.0 4 132 372 
-6.625 -12.6719 223.0 4 136 368 
1.2998 4.74609 173.0 4 140 368 
0.0999756 0.299805 176.0 4 136 372 
7.47266 5.37109 170.0 4 140 372 
-12.9922 -15.4453 271.0 4 128 376 
-7.69922 -8.29688 203.0 4 132 376 
-12.1719 -15.2188 224.0 4 128 380 
-1.22461 3.07422 160.0 4 132 380 
3.12891 7.75781 172.0 8 136 376 
1.59961 3.64844 193.0 4 144 368 
0.199951 11.4922 211.0 4 148 368 
13.6484 6.89844 192.0 4 144 372 
6.54688 5.69922 227.0 4 148 372 
-0.0 2.5034e-06 254.0 8 152 368 
-0.133911 0.663574 252.0 8 144 376 
-0.0 2.5034e-06 254.0 8 152 376 
0.0557556 0.0311432 253.0 32 160 352 
0.188232 -0.51123 256.0 32 192 320 
0.75 -1.42188 252.0 8 224 320 
-1.0498 2.79102 241.0 8 232 320 
-3.36328 3.48047 236.0 8 224 328 
0.535645 0.12793 237.0 8 232 328 
-0.0803223 -0.0744019 255.0 8 240 320 
-1.75586 -1.82129 262.0 8 248 320 
0.648438 0.851074 247.0 8 240 328 
0.120483 -4.55469 261.0 8 248 328 
-0.924805 -1.72461 217.0 4 224 336 
1.5498 8.54688 217.0 4 228 336 
-1.39941 -5.69922 224.0 4 224 340 
-2.25 7.94922 218.0 4 228 340 
-2.79492 -2.81836 255.0 8 232 336 
1.27441 -6.42188 223.0 4 224 344 
-1.39941 6.39844 212.0 4 228 344 
5.04688 -5.14844 224.0 4 224 348 
-0.824707 -1.52441 212.0 4 228 348 
-2.91992 -1.56934 233.0 8 232 344 
-5.85547 -0.797363 264.0 8 240 336 
-10.2188 -5.37109 264.0 4 248 336 
-9.69531 -7.19922 240.0 4 252 336 
-3.54883 -3.04883 222.0 4 248 340 
4.79688 0.0499878 204.0 4 252 340 
0.737793 0.37793 204.0 8 240 344 
4.375 6.3125 191.0 8 248 344 
0.00847626 -0.0580444 255.0 32 192 352 
2.22461 -6.52344 250.0 4 224 352 
3.44922 -4.79688 219.0 4 228 352 
-7.22266 -9.61719 258.0 4 224 356 
2.24805 -1.25 218.0 4 228 356 
3.78711 -0.75293 199.0 8 232 352 
3.10938 2.64453 226.0 8 224 360 
2.76758 -0.944824 243.0 8 232 360 
3.72852 5.23828 203.0 8 240 352 
0.529297 0.476074 250.0 8 248 352 
0.670898 0.632324 249.0 8 240 360 
-0.0 2.5034e-06 254.0 8 248 360 
5.1856e-06 -3.75509e-06 255.0 16 224 368 
5.1856e-06 -3.75509e-06 255.0 16 240 368 
0.0388794 -0.000923157 25.0 32 0 384 
0.208984 0.204956 22.0 16 32 384 
0.983398 3.96484 19.0 16 48 384 
0.0211334 0.119446 27.0 16 32 400 
0.327148 5.28906 33.0 16 48 400 
-0.144775 0.348877 18.0 32 0 416 
0.269531 0.149536 25.0 16 32 416 
0.635742 7.00391 29.0 16 48 416 
0.046936 0.712402 21.0 16 32 432 
-0.102661 9.16406 22.0 8 48 432 
-0.339111 5.55469 95.0 8 56 432 
0.56543 4.74609 39.0 8 48 440 
-1.62109 3.89453 95.0 8 56 440 
-1.39648 6.33203 96.0 8 64 384 
2.31836 0.093689 128.0 8 72 384 
3.95508 4.12109 82.0 8 64 392 
0.651367 3.41016 127.0 8 72 392 
-5.76562 6.70703 159.0 8 80 384 
-8.17188 6.13672 216.0 8 88 384 
1.14941 -1.2627 143.0 8 80 392 
-7.27344 0.974609 154.0 4 88 392 
-9.27344 9.52344 162.0 4 92 392 
4.39844 1.09961 135.0 4 88 396 
0.749512 0.649902 145.0 4 92 396 
0.24585 3.51367 108.0 16 64 400 
0.824219 -2.30859 161.0 8 80 400 
2.62891 2.90625 140.0 8 88 400 
0.0163727 -1.73047 162.0 8 80 408 
-4.97266 -1.625 156.0 4 88 408 
-11.3672 1.6748 171.0 4 92 408 
-0.125 -5.67188 140.0 4 88 412 
-2.82422 1.82422 132.0 4 92 412 
-0.449951 0.449951 254.0 4 96 384 
-8.10623e-06 -0.0 255.0 4 100 384 
-5.32422 11.9688 230.0 4 96 388 
-8.10623e-06 -0.0 255.0 4 100 388 
-1.74805 -1.29883 262.0 8 104 384 
-11.1953 15.6484 198.0 4 96 392 
-9.14844 1.59961 255.0 4 100 392 
-4.69922 11.1484 161.0 4 96 396 
-5.77344 2.37305 211.0 4 100 396 
-11.1797 -10.8438 272.0 8 104 392 
-1.4248 -1.07422 257.0 4 112 384 
-9.11719 -2.92383 263.0 4 116 384 
-14.9688 -9.27344 256.0 4 112 388 
-14.3438 -6.39844 226.0 4 116 388 
-12.2656 -10.2031 252.0 8 120 384 
-8.47656 -5.00391 184.0 8 112 392 
-10.375 -4.92188 152.0 4 120 392 
-2.875 -0.0749512 117.0 4 124 392 
-1.375 0.874512 105.0 4 120 396 
-1.44922 3.04883 104.0 4 124 396 
5.67188 4.27344 156.0 4 96 400 
-4.54688 -0.0999756 194.0 4 100 400 
-2.94922 -0.549805 188.0 4 96 404 
-6.84766 -8.04688 186.0 4 100 404 
-5.54297 -8.5 176.0 8 104 400 
-7.77344 -1.77441 168.0 4 96 408 
1.2998 -3.14844 153.0 4 100 408 
-5.22266 2.97461 135.0 4 96 412 
-8.59375 -6.14844 160.0 4 100 412 
-4.0 -12.8438 133.0 4 104 408 
-1.6748 4.17188 89.0 4 108 408 
-3.75 -5.64844 112.0 4 104 412 
5.24609 1.19922 95.0 4 108 412 
-5.69922 0.299805 117.0 4 112 400 
0.824707 2.375 103.0 4 116 400 
5.5 2.04883 88.0 4 112 404 
2.72461 6.67188 105.0 4 116 404 
3.28711 -0.386719 114.0 8 120 400 
2.7168 6.26172 100.0 8 112 408 
5.74609 2.625 125.0 8 120 408 
1.13281 1.41016 133.0 16 64 416 
0.588867 -1.76758 166.0 8 80 416 
-2.43555 -3.51562 141.0 8 88 416 
-2.00391 -4.43359 180.0 8 80 424 
-0.94043 -5.58984 126.0 8 88 424 
-1.0918 2.88086 143.0 8 64 432 
-3.63867 -1.90723 167.0 8 72 432 
-1.75977 3.10547 124.0 8 64 440 
-3.48828 -5.70312 151.0 8 72 440 
-4.25391 -3.11914 158.0 8 80 432 
1.16797 -1.98047 102.0 8 88 432 
-1.30859 3.54688 99.0 8 80 440 
0.651367 -0.187378 118.0 8 88 440 
-3.85156 -2.58398 121.0 8 96 416 
1.06055 6.57031 84.0 8 104 416 
-0.363037 0.880859 88.0 8 96 424 
2.75 8.875 78.0 8 104 424 
4.32422 3.4668 133.0 8 112 416 
-1.47559 3.05859 178.0 8 120 416 
-5.98828 -0.200806 172.0 8 112 424 
-4.22266 0.924805 174.0 4 120 424 
-5.27344 -9.07031 178.0 4 124 424 
-3.64844 6.34766 145.0 4 120 428 
-0.949707 -10.2969 157.0 4 124 428 
2.11133 2.19922 81.0 8 96 432 
0.399902 8.49219 103.0 4 104 432 
-6.42188 -2.02344 140.0 4 108 432 
-3.94922 -2.74805 119.0 4 104 436 
-5.32422 -3.67383 111.0 4 108 436 
-1.14941 -10.2969 123.0 4 96 440 
-2.52344 5.57422 90.0 4 100 440 
0.624512 -7.47266 115.0 4 96 444 
-3.27344 0.424805 88.0 4 100 444 
-2.44922 -2.69336 101.0 8 104 440 
-5.84375 -1.21484 119.0 8 112 432 
-6.87891 -0.389648 139.0 8 120 432 
-0.15625 1.12012 70.0 8 112 440 
2.92383 4.01953 72.0 8 120 440 
7.0625 2.56445 13.0 8 0 448 
2.79297 -2.375 34.0 8 8 448 
-4.58203 2.28125 59.0 8 0 456 
-1.40527 -4.32812 66.0 8 8 456 
0.340576 -0.424072 19.0 16 16 448 
0.644043 -0.0417175 37.0 16 0 464 
0.516113 -2.57227 37.0 8 16 464 
1.7002 0.09375 12.0 8 24 464 
-1.03418 -1.75391 38.0 8 16 472 
2.70898 3.68164 10.0 8 24 472 
0.356201 2.62109 11.0 16 32 448 
1.08691 3.66406 44.0 8 48 448 
-1.37793 2.59766 87.0 8 56 448 
-1.33691 1.6084 56.0 8 48 456 
-3.24805 0.493896 81.0 8 56 456 
1.58887 4.0 12.0 8 32 464 
1.39062 0.649902 38.0 8 40 464 
5.22266 3.05078 28.0 8 32 472 
2.80078 5.70312 44.0 8 40 472 
5.9375 4.07422 39.0 8 48 464 
3.58203 1.04395 77.0 8 56 464 
1.27637 0.541504 102.0 8 48 472 
-1.32422 -2.63086 108.0 8 56 472 
-0.748047 -1.30664 59.0 16 0 480 
1.99609 0.0803223 25.0 8 16 480 
6.32422 8.82031 24.0 4 24 480 
2.62305 -0.124939 63.0 4 28 480 
-0.149902 4.64844 58.0 4 24 484 
-3.32422 0.0749512 76.0 4 28 484 
